-3.3826e+05 2.0878e+06 1e-1
-3.4188e+05 2.0876e+06 1e-1
-3.3815e+05 2.0935e+06 1e-1
-3.4626e+05 2.0886e+06 1e-1
-3.3957e+05 2.0928e+06 1e-1
-3.3934e+05 2.0947e+06 1e-1
-3.318e+05 2.0878e+06 1e-1
-3.3749e+05 2.0897e+06 1e-1
-3.3637e+05 2.0967e+06 1e-1
-3.4392e+05 2.0885e+06 1e-1
-3.3678e+05 2.095e+06 1e-1
-3.4518e+05 2.0875e+06 1e-1
-3.4222e+05 2.0903e+06 1e-1
-3.4577e+05 2.0898e+06 1e-1
-3.4244e+05 2.0887e+06 1e-1
-3.3957e+05 2.0905e+06 1e-1
-3.3219e+05 2.0896e+06 1e-1
-3.365e+05 2.0921e+06 1e-1
-3.3205e+05 2.098e+06 1e-1
-3.3822e+05 2.0914e+06 1e-1
-3.3356e+05 2.0956e+06 1e-1
-3.3874e+05 2.0927e+06 1e-1
-3.4405e+05 2.0908e+06 1e-1
-3.3542e+05 2.0885e+06 1e-1
-3.3673e+05 2.0876e+06 1e-1
-3.4116e+05 2.0902e+06 1e-1
-3.431e+05 2.092e+06 1e-1
-3.347e+05 2.0878e+06 1e-1
-3.3318e+05 2.0911e+06 1e-1
-3.4187e+05 2.0931e+06 1e-1
-3.4741e+05 2.0879e+06 1e-1
-3.3169e+05 2.0934e+06 1e-1
-3.3482e+05 2.0899e+06 1e-1
-3.3353e+05 2.099e+06 1e-1
-3.3366e+05 2.093e+06 1e-1
-3.381e+05 2.096e+06 1e-1
-3.3272e+05 2.0876e+06 1e-1
-3.347e+05 2.0918e+06 1e-1
-3.3281e+05 2.0922e+06 1e-1
-3.4078e+05 2.0891e+06 1e-1
-3.3664e+05 2.0903e+06 1e-1
-3.3341e+05 2.0974e+06 1e-1
-3.3214e+05 2.101e+06 1e-1
-3.3499e+05 2.096e+06 1e-1
-3.3921e+05 2.0897e+06 1e-1
-3.4127e+05 2.0919e+06 1e-1
-3.3528e+05 2.095e+06 1e-1
-3.4359e+05 2.0901e+06 1e-1
-3.4399e+05 2.0876e+06 1e-1
-3.4036e+05 2.0908e+06 1e-1
-3.3871e+05 2.0942e+06 1e-1
-3.3753e+05 2.0948e+06 1e-1
-3.3594e+05 2.0934e+06 1e-1
-3.3208e+05 2.1019e+06 1e-1
-3.4011e+05 2.0876e+06 1e-1
-3.4242e+05 2.0913e+06 1e-1
-3.4024e+05 2.0948e+06 1e-1
-3.3592e+05 2.0973e+06 1e-1
-3.416e+05 2.0883e+06 1e-1
-3.3353e+05 2.0892e+06 1e-1
-3.3361e+05 2.0883e+06 1e-1
-3.3288e+05 2.0963e+06 1e-1
-3.3857e+05 2.0869e+06 1e-1
-3.3504e+05 2.0978e+06 1e-1
-3.3385e+05 2.0946e+06 1e-1
-3.4136e+05 2.0939e+06 1e-1
-3.3899e+05 2.0955e+06 1e-1
-3.3607e+05 2.0889e+06 1e-1
-3.3785e+05 2.0889e+06 1e-1
-3.3476e+05 2.0944e+06 1e-1
-3.3736e+05 2.0932e+06 1e-1
-3.3192e+05 2.0965e+06 1e-1
-3.4448e+05 2.0891e+06 1e-1
-3.4518e+05 2.0903e+06 1e-1
-3.3327e+05 2.0939e+06 1e-1
-3.4578e+05 2.088e+06 1e-1
-3.3441e+05 2.0969e+06 1e-1
-3.3242e+05 2.0941e+06 1e-1
-3.3408e+05 2.0912e+06 1e-1
-3.3234e+05 2.095e+06 1e-1
-3.403e+05 2.0933e+06 1e-1
-3.4378e+05 2.0915e+06 1e-1
-3.364e+05 2.0941e+06 1e-1
-3.3436e+05 2.0926e+06 1e-1
-3.3729e+05 2.0966e+06 1e-1
-3.4249e+05 2.0895e+06 1e-1
-3.3995e+05 2.0891e+06 1e-1
-3.4259e+05 2.0871e+06 1e-1
-3.4457e+05 2.0881e+06 1e-1
-3.3431e+05 2.087e+06 1e-1
-3.3156e+05 2.0912e+06 1e-1
-3.3748e+05 2.088e+06 1e-1
-3.47e+05 2.0885e+06 1e-1
-3.3537e+05 2.0913e+06 1e-1
-3.4315e+05 2.0885e+06 1e-1
-3.3736e+05 2.0918e+06 1e-1
-3.3438e+05 2.0986e+06 1e-1
-3.3571e+05 2.0964e+06 1e-1
-3.3541e+05 2.0904e+06 1e-1
-3.4114e+05 2.0875e+06 1e-1
-3.321e+05 2.0927e+06 1e-1
-3.324e+05 2.0915e+06 1e-1
-3.3196e+05 2.0886e+06 1e-1
-3.4797e+05 2.0874e+06 1e-1
-3.3256e+05 2.1e+06 1e-1
-3.38e+05 2.0943e+06 1e-1
-3.3201e+05 2.0995e+06 1e-1
-3.3405e+05 2.0905e+06 1e-1
-3.4633e+05 2.0893e+06 1e-1
-3.3647e+05 2.096e+06 1e-1
-3.3323e+05 2.0996e+06 1e-1
-3.3421e+05 2.0961e+06 1e-1
-3.4588e+05 2.087e+06 1e-1
-3.3679e+05 2.0893e+06 1e-1
-3.3623e+05 2.0882e+06 1e-1
-3.4391e+05 2.0894e+06 1e-1
-3.427e+05 2.0927e+06 1e-1
-3.3975e+05 2.0913e+06 1e-1
-3.3879e+05 2.0885e+06 1e-1
-3.3779e+05 2.0904e+06 1e-1
-3.3765e+05 2.0954e+06 1e-1
-3.3598e+05 2.0948e+06 1e-1
-3.3824e+05 2.0898e+06 1e-1
-3.417e+05 2.0869e+06 1e-1
-3.4042e+05 2.0924e+06 1e-1
-3.3205e+05 2.087e+06 1e-1
-3.3862e+05 2.092e+06 1e-1
-3.4093e+05 2.0945e+06 1e-1
-3.4291e+05 2.09e+06 1e-1
-3.3911e+05 2.0877e+06 1e-1
-3.3259e+05 2.0986e+06 1e-1
-3.4344e+05 2.0871e+06 1e-1
-3.3376e+05 2.0982e+06 1e-1
-3.327e+05 2.0978e+06 1e-1
-3.4e+05 2.0941e+06 1e-1
-3.472e+05 2.0873e+06 1e-1
-3.3514e+05 2.0924e+06 1e-1
-3.3445e+05 2.0933e+06 1e-1
-3.3269e+05 2.0902e+06 1e-1
-3.3717e+05 2.0924e+06 1e-1
-3.3186e+05 2.1025e+06 1e-1
-3.3621e+05 2.087e+06 1e-1
-3.3891e+05 2.0934e+06 1e-1
-3.3283e+05 2.0954e+06 1e-1
-3.3966e+05 2.0953e+06 1e-1
-3.39e+05 2.091e+06 1e-1
-3.4845e+05 2.0869e+06 1e-1
-3.3981e+05 2.092e+06 1e-1
-3.3253e+05 2.1015e+06 1e-1
-3.3405e+05 2.0897e+06 1e-1
-3.4096e+05 2.0912e+06 1e-1
-3.3261e+05 2.1006e+06 1e-1
-3.4571e+05 2.0889e+06 1e-1
-3.3924e+05 2.089e+06 1e-1
-3.4512e+05 2.0894e+06 1e-1
-3.359e+05 2.0926e+06 1e-1
-3.3507e+05 2.0872e+06 1e-1
-3.4023e+05 2.0885e+06 1e-1
-3.352e+05 2.0893e+06 1e-1
-3.3673e+05 2.0972e+06 1e-1
-3.3342e+05 2.0868e+06 1e-1
-3.3603e+05 2.0915e+06 1e-1
-3.3665e+05 2.0913e+06 1e-1
-3.4248e+05 2.088e+06 1e-1
-3.3293e+05 2.0896e+06 1e-1
-3.392e+05 2.0922e+06 1e-1
-3.4473e+05 2.0908e+06 1e-1
-3.4095e+05 2.0934e+06 1e-1
-3.4193e+05 2.0917e+06 1e-1
-3.3181e+05 2.0955e+06 1e-1
-3.3513e+05 2.0937e+06 1e-1
-3.4458e+05 2.0873e+06 1e-1
-3.4168e+05 2.0925e+06 1e-1
-3.3672e+05 2.0935e+06 1e-1
-3.0976e+05 1.9175e+06 0.12913
-3.1191e+05 1.9202e+06 0.12823
-3.1407e+05 1.9229e+06 0.12743
-3.1646e+05 1.9255e+06 0.12679
-3.1912e+05 1.9277e+06 0.12642
-3.2178e+05 1.93e+06 0.12632
-3.2444e+05 1.9322e+06 0.12662
-3.271e+05 1.9345e+06 0.12735
-3.2976e+05 1.9368e+06 0.12811
-3.3114e+05 1.9399e+06 0.12857
-3.3235e+05 1.9432e+06 0.12893
-3.3357e+05 1.9464e+06 0.12895
-3.2504e+05 1.9865e+06 0.12704
-3.1317e+05 1.969e+06 0.090592
-3.1609e+05 1.9514e+06 0.11335
-3.1123e+05 1.9928e+06 0.093257
-3.2623e+05 1.9724e+06 0.12704
-3.1429e+05 1.9811e+06 0.098024
-3.2157e+05 1.9619e+06 0.11437
-3.2007e+05 1.994e+06 0.10755
-3.1707e+05 1.9404e+06 0.12264
-3.3006e+05 1.9931e+06 0.13495
-3.1247e+05 1.9601e+06 0.097977
-3.0732e+05 1.986e+06 0.071738
-3.2579e+05 1.9532e+06 0.12286
-3.2989e+05 1.98e+06 0.13745
-3.2228e+05 1.9798e+06 0.12135
-3.1635e+05 1.9879e+06 0.10606
-3.2894e+05 1.9651e+06 0.12864
-3.0995e+05 1.9757e+06 0.075108
-3.1029e+05 1.9312e+06 0.1254
-3.2418e+05 1.9448e+06 0.12539
-3.1907e+05 1.9728e+06 0.11037
-3.2941e+05 1.9589e+06 0.12657
-3.125e+05 1.9469e+06 0.11458
-3.1891e+05 1.9666e+06 0.10885
-3.1561e+05 1.9334e+06 0.12523
-3.1061e+05 1.9982e+06 0.08438
-3.2499e+05 1.9914e+06 0.12363
-3.1737e+05 1.9574e+06 0.10947
-3.3012e+05 1.9852e+06 0.13777
-3.1981e+05 1.9845e+06 0.11713
-3.2409e+05 1.9675e+06 0.12025
-3.114e+05 1.9545e+06 0.10481
-3.1483e+05 1.9752e+06 0.09813
-3.0954e+05 1.9647e+06 0.082526
-3.0915e+05 1.9807e+06 0.079862
-3.228e+05 1.9386e+06 0.12613
-3.2097e+05 1.9893e+06 0.11589
-3.1188e+05 1.9373e+06 0.12227
-3.1149e+05 1.9882e+06 0.094337
-3.1551e+05 1.9944e+06 0.10455
-3.1851e+05 1.9456e+06 0.12033
-3.0905e+05 1.926e+06 0.12733
-3.2947e+05 1.9974e+06 0.12874
-3.2839e+05 1.9481e+06 0.12714
-3.2575e+05 1.9823e+06 0.12874
-3.1619e+05 1.9625e+06 0.10367
-3.0739e+05 1.9603e+06 0.087925
-3.2616e+05 1.9773e+06 0.12884
-3.2821e+05 1.9892e+06 0.13275
-3.2301e+05 1.9571e+06 0.11761
-3.3021e+05 1.9703e+06 0.13402
-3.0956e+05 1.9422e+06 0.11744
-3.2134e+05 1.9507e+06 0.11925
-3.3034e+05 1.975e+06 0.1367
-3.1796e+05 1.9788e+06 0.11047
-3.3033e+05 1.9537e+06 0.12717
-3.329e+05 1.9958e+06 0.14087
-3.1167e+05 1.984e+06 0.092643
-3.2187e+05 1.9759e+06 0.1187
-3.0957e+05 1.9714e+06 0.071977
-3.2655e+05 1.9623e+06 0.12311
-3.1465e+05 1.9299e+06 0.12613
-3.1151e+05 1.9496e+06 0.111
-3.1439e+05 1.9908e+06 0.10237
-3.164e+05 1.9836e+06 0.10584
-3.2072e+05 1.9349e+06 0.1259
-3.2686e+05 1.9408e+06 0.12766
-3.3277e+05 1.9894e+06 0.14242
-3.2769e+05 1.9951e+06 0.12687
-3.135e+05 1.9647e+06 0.095055
-3.1787e+05 1.9911e+06 0.10857
-3.2287e+05 1.9949e+06 0.11266
-3.3332e+05 1.9629e+06 0.13399
-3.1501e+05 1.9719e+06 0.097284
-3.2306e+05 1.971e+06 0.11937
-3.117e+05 1.9786e+06 0.086458
-3.072e+05 1.952e+06 0.10416
-3.2124e+05 1.9436e+06 0.12365
-3.1423e+05 1.9563e+06 0.10609
-3.1267e+05 1.9957e+06 0.095524
-3.0904e+05 1.9572e+06 0.097068
-3.1987e+05 1.954e+06 0.1152
-3.1306e+05 1.9415e+06 0.11971
-3.2764e+05 1.9682e+06 0.12779
-3.1775e+05 1.9964e+06 0.10351
-3.3215e+05 1.9988e+06 0.13572
-3.1188e+05 1.9735e+06 0.08465
-3.2482e+05 1.9485e+06 0.12422
-3.0961e+05 1.9686e+06 0.075162
-3.2873e+05 1.9444e+06 0.1281
-3.1389e+05 1.986e+06 0.098883
-3.215e+05 1.9652e+06 0.11433
-3.1257e+05 1.934e+06 0.12435
-3.186e+05 1.9817e+06 0.11341
-3.2622e+05 1.9565e+06 0.12223
-3.134e+05 1.9264e+06 0.12694
-3.1928e+05 1.9758e+06 0.11249
-3.0987e+05 1.9454e+06 0.11435
-3.0844e+05 1.9218e+06 0.12847
-3.1981e+05 1.9698e+06 0.11138
-3.2339e+05 1.984e+06 0.12426
-3.1645e+05 1.9686e+06 0.10238
-3.3123e+05 1.95e+06 0.12828
-3.2726e+05 1.9848e+06 0.1319
-3.1548e+05 1.9373e+06 0.12352
-3.1591e+05 1.9478e+06 0.11646
-3.2232e+05 1.992e+06 0.11574
-3.1552e+05 1.944e+06 0.1193
-3.2984e+05 1.9622e+06 0.12847
-3.3289e+05 1.9803e+06 0.14315
-3.2402e+05 1.9891e+06 0.12356
-3.1914e+05 1.9871e+06 0.11333
-3.1869e+05 1.9601e+06 0.10987
-3.3248e+05 1.9585e+06 0.12973
-3.2259e+05 1.9976e+06 0.10693
-3.0983e+05 1.9954e+06 0.086307
-3.2208e+05 1.9867e+06 0.12109
-3.0871e+05 1.9881e+06 0.080131
-3.1947e+05 1.938e+06 0.1248
-3.1856e+05 1.9315e+06 0.12607
-3.2442e+05 1.9595e+06 0.11919
-3.2614e+05 1.9378e+06 0.12748
-3.262e+05 1.9653e+06 0.12362
-3.3147e+05 1.9828e+06 0.14062
-3.2746e+05 1.9919e+06 0.12942
-3.0995e+05 1.9904e+06 0.088756
-3.1501e+05 1.9593e+06 0.10387
-3.3311e+05 1.9858e+06 0.14351
-3.1689e+05 1.9545e+06 0.11127
-3.1889e+05 1.9636e+06 0.10906
-3.1152e+05 1.9623e+06 0.092479
-3.0858e+05 1.9929e+06 0.084457
-3.3103e+05 1.9677e+06 0.13406
-3.2144e+05 1.9471e+06 0.12182
-3.1295e+05 1.9518e+06 0.10989
-3.3307e+05 1.9749e+06 0.14197
-3.2388e+05 1.9353e+06 0.12672
-3.0875e+05 1.9835e+06 0.081023
-3.1499e+05 1.9782e+06 0.099857
-3.0869e+05 1.9369e+06 0.1218
-3.2131e+05 1.982e+06 0.12015
-3.1169e+05 1.9814e+06 0.089898
-3.0837e+05 1.9778e+06 0.07049
-3.2552e+05 1.97e+06 0.12435
-3.1869e+05 1.949e+06 0.11781
-3.2479e+05 1.9797e+06 0.12641
-3.314e+05 1.9776e+06 0.13982
-3.2285e+05 1.9539e+06 0.11883
-3.2771e+05 1.9512e+06 0.12563
-3.3341e+05 1.97e+06 0.14012
-3.171e+05 1.974e+06 0.10532
-3.0842e+05 1.9291e+06 0.12629
-3.1487e+05 1.9966e+06 0.10075
-3.2863e+05 1.9825e+06 0.13495
-3.2406e+05 1.9413e+06 0.12635
-3.1639e+05 1.9655e+06 0.10276
-3.3206e+05 1.9918e+06 0.14046
-3.1404e+05 1.9886e+06 0.10127
-3.2065e+05 1.9963e+06 0.10538
-3.2733e+05 1.9799e+06 0.13201
-3.1031e+05 1.986e+06 0.089571
-3.2906e+05 1.9726e+06 0.13299
-3.1383e+05 1.9834e+06 0.097969
-3.1776e+05 1.9935e+06 0.10702
-3.2877e+05 1.9775e+06 0.13456
-3.112e+05 1.9235e+06 0.12773
-3.2759e+05 1.9749e+06 0.13111
-3.2856e+05 1.987e+06 0.1342
-3.1359e+05 1.9929e+06 0.099967
-3.3063e+05 1.9954e+06 0.13466
-3.2397e+05 1.9637e+06 0.11881
-3.0682e+05 1.9417e+06 0.11711
-3.2725e+05 1.9982e+06 0.12008
-3.0837e+05 1.9546e+06 0.10112
-3.307e+05 1.9465e+06 0.12847
-3.0919e+05 1.962e+06 0.087532
-3.2615e+05 1.9899e+06 0.12772
-3.2426e+05 1.9746e+06 0.12357
-3.3251e+05 1.9553e+06 0.12872
-3.1173e+05 1.9667e+06 0.086662
-3.2324e+05 1.9775e+06 0.12246
-3.2151e+05 1.9591e+06 0.11475
-3.1003e+05 1.9396e+06 0.11988
-3.3011e+05 1.9906e+06 0.13642
-3.175e+05 1.971e+06 0.10546
-3.2658e+05 1.9461e+06 0.12656
-3.1254e+05 1.9761e+06 0.088423
-3.2151e+05 1.9679e+06 0.1149
-3.1657e+05 1.9806e+06 0.10629
-3.1191e+05 1.9711e+06 0.084442
-3.0987e+05 1.9344e+06 0.12367
-3.1797e+05 1.935e+06 0.12519
-3.1142e+05 1.929e+06 0.1263
-3.3195e+05 1.9725e+06 0.13863
-3.1984e+05 1.9917e+06 0.1104
-3.1245e+05 1.9906e+06 0.097167
-3.1381e+05 1.9617e+06 0.098825
-3.16e+05 1.9922e+06 0.10602
-3.3051e+05 1.9877e+06 0.1381
-3.2932e+05 1.9561e+06 0.12616
-3.2079e+05 1.978e+06 0.11738
-3.1864e+05 1.9893e+06 0.11079
-3.2418e+05 1.9513e+06 0.122
-3.3305e+05 1.9937e+06 0.14226
-3.0731e+05 1.971e+06 0.059939
-3.1014e+05 1.9518e+06 0.10719
-3.1007e+05 1.9598e+06 0.093686
-3.2861e+05 1.9392e+06 0.12816
-3.2934e+05 1.9418e+06 0.12843
-3.201e+05 1.9566e+06 0.11379
-3.1191e+05 1.9576e+06 0.10078
-3.1858e+05 1.9519e+06 0.11535
-3.1425e+05 1.9669e+06 0.095703
-3.2138e+05 1.9731e+06 0.11627
-3.2522e+05 1.9959e+06 0.11807
-3.3216e+05 1.9608e+06 0.1308
-3.1393e+05 1.9393e+06 0.12172
-3.121e+05 1.944e+06 0.11705
-3.0859e+05 1.9734e+06 0.065197
-3.1683e+05 1.9765e+06 0.10573
-3.328e+05 1.9524e+06 0.1286
-3.2773e+05 1.9707e+06 0.1293
-3.1621e+05 1.99e+06 0.10624
-3.1379e+05 1.9495e+06 0.11307
-3.1272e+05 1.9314e+06 0.12549
-3.2685e+05 1.9596e+06 0.12302
-3.1656e+05 1.928e+06 0.12649
-3.2523e+05 1.9938e+06 0.12145
-3.2188e+05 1.9326e+06 0.12631
-3.0794e+05 1.932e+06 0.12491
-3.3176e+05 1.9652e+06 0.13355
-3.0751e+05 1.9671e+06 0.069981
-3.1712e+05 1.9858e+06 0.10794
-3.1428e+05 1.9538e+06 0.10903
-3.2656e+05 1.9433e+06 0.12728
-3.236e+05 1.9815e+06 0.12439
-3.1864e+05 1.9428e+06 0.12225
-3.2787e+05 1.9541e+06 0.12486
-3.2016e+05 1.9801e+06 0.1169
-3.0924e+05 1.9486e+06 0.11041
-3.2063e+05 1.9406e+06 0.1245
-3.2666e+05 1.9879e+06 0.12993
-3.2536e+05 1.9844e+06 0.12802
-3.0761e+05 2.0128e+06 1e-1
-3.227e+05 2.0294e+06 0.099255
-3.2119e+05 2.0024e+06 0.092038
-3.3137e+05 2.0229e+06 0.10944
-3.203e+05 2.0162e+06 1e-1
-3.1182e+05 2.0239e+06 1e-1
-3.1046e+05 2.0031e+06 0.075587
-3.3103e+05 2.0013e+06 0.12728
-3.2857e+05 2.0148e+06 0.092824
-3.1523e+05 2.03e+06 1e-1
-3.2392e+05 2.0225e+06 0.089602
-3.1502e+05 2.0105e+06 0.053525
-3.3022e+05 2.0292e+06 0.10968
-3.234e+05 2.0094e+06 0.063833
-3.137e+05 2.0172e+06 1e-1
-3.1792e+05 2.0246e+06 1e-1
-3.2986e+05 2.0086e+06 0.10373
-3.1566e+05 1.9986e+06 0.09888
-3.2507e+05 1.9981e+06 0.11316
-3.1143e+05 2.0333e+06 1e-1
-3.1866e+05 2.0325e+06 1e-1
-3.2566e+05 2.0267e+06 0.10328
-3.2814e+05 2.0195e+06 0.097513
-3.255e+05 2.0046e+06 0.093061
-3.1007e+05 2.0084e+06 0.063779
-3.1597e+05 2.0047e+06 0.086797
-3.2177e+05 2.0332e+06 0.075457
-3.1117e+05 2.0295e+06 1e-1
-3.2508e+05 2.031e+06 0.1017
-3.1708e+05 2.0196e+06 1e-1
-3.296e+05 2.0329e+06 0.1047
-3.25e+05 2.0166e+06 0.075792
-3.1944e+05 2.0116e+06 1e-1
-3.1826e+05 2.028e+06 1e-1
-3.1061e+05 1.9982e+06 0.08438
-3.2192e+05 2.0254e+06 0.09126
-3.3249e+05 2.0269e+06 0.11224
-3.1465e+05 2.0265e+06 1e-1
-3.1231e+05 2.0132e+06 1e-1
-3.2765e+05 2.0234e+06 0.1027
-3.2055e+05 2.0074e+06 0.069007
-3.211e+05 2.0199e+06 1e-1
-3.078e+05 2.0233e+06 1e-1
-3.1676e+05 2.0146e+06 1e-1
-3.1108e+05 2.0201e+06 1e-1
-3.1995e+05 1.9984e+06 0.10137
-3.2294e+05 2.0132e+06 0.05568
-3.0964e+05 2.0163e+06 1e-1
-3.2686e+05 2.0114e+06 0.081299
-3.1533e+05 2.0225e+06 1e-1
-3.2947e+05 1.9974e+06 0.12874
-3.3136e+05 2.0198e+06 0.10764
-3.2936e+05 2.0261e+06 0.10811
-3.0972e+05 2.0258e+06 1e-1
-3.0793e+05 2.0306e+06 1e-1
-3.2952e+05 2.0049e+06 0.11135
-3.2726e+05 2.001e+06 0.1128
-3.1325e+05 2.0068e+06 0.077508
-3.3279e+05 2.0101e+06 0.11661
-3.2519e+05 2.0195e+06 0.084766
-3.263e+05 2.0081e+06 0.083523
-3.3002e+05 2.0117e+06 0.10025
-3.31e+05 2.0169e+06 0.10479
-3.1329e+05 2.0017e+06 0.089511
-3.2328e+05 2.0062e+06 0.077661
-3.174e+05 2.0015e+06 0.095338
-3.2764e+05 2.0313e+06 0.10466
-3.2056e+05 2.0223e+06 1e-1
-3.321e+05 2.0322e+06 0.10841
-3.2343e+05 2.0014e+06 0.098936
-3.2769e+05 1.9951e+06 0.12687
-3.2725e+05 2.0288e+06 0.10594
-3.1441e+05 2.0195e+06 1e-1
-3.1225e+05 2.0313e+06 1e-1
-3.1944e+05 2.03e+06 0.078526
-3.3331e+05 2.0033e+06 0.13307
-3.2652e+05 2.0135e+06 0.080675
-3.2413e+05 2.0282e+06 0.10209
-3.1282e+05 2.028e+06 1e-1
-3.0923e+05 2.0324e+06 1e-1
-3.1682e+05 2.0074e+06 0.075178
-3.2468e+05 2.0327e+06 0.096903
-3.2324e+05 2.0309e+06 0.097706
-3.0899e+05 2.0002e+06 0.069576
-3.1669e+05 2.0308e+06 1e-1
-3.2022e+05 2.0269e+06 0.084281
-3.2406e+05 2.0245e+06 0.096388
-3.0765e+05 2.0102e+06 1e-1
-3.273e+05 2.017e+06 0.089899
-3.2949e+05 2.022e+06 0.10464
-3.223e+05 2.0179e+06 1e-1
-3.1794e+05 2.017e+06 1e-1
-3.1267e+05 1.9957e+06 0.095524
-3.2046e+05 2.0318e+06 0.083198
-3.3208e+05 2.0287e+06 0.11139
-3.1471e+05 2.0127e+06 1e-1
-3.1232e+05 2.0101e+06 0.049923
-3.1833e+05 2.0216e+06 1e-1
-3.1257e+05 2.0259e+06 1e-1
-3.1775e+05 1.9964e+06 0.10351
-3.2655e+05 2.0213e+06 0.096289
-3.3215e+05 1.9988e+06 0.13572
-3.1862e+05 2.0046e+06 0.084474
-3.1688e+05 2.0263e+06 1e-1
-3.0898e+05 2.0211e+06 1e-1
-3.277e+05 2.0331e+06 0.10211
-3.304e+05 2.031e+06 0.10838
-3.0717e+05 2.0156e+06 1e-1
-3.1609e+05 2.0281e+06 1e-1
-3.0897e+05 2.0059e+06 0.058269
-3.214e+05 2.0098e+06 0.054196
-3.1317e+05 2.0216e+06 1e-1
-3.2339e+05 2.0037e+06 0.089846
-3.1348e+05 2.0328e+06 1e-1
-3.1861e+05 2.0137e+06 1e-1
-3.2232e+05 2.0275e+06 0.097447
-3.1709e+05 2.0097e+06 0.056918
-3.1359e+05 2.0044e+06 0.084742
-3.1042e+05 2.0114e+06 1e-1
-3.249e+05 2.0123e+06 0.069531
-3.0876e+05 2.0286e+06 1e-1
-3.1394e+05 2.0241e+06 1e-1
-3.1702e+05 2.0122e+06 1e-1
-3.1576e+05 2.0179e+06 1e-1
-3.1925e+05 2.0188e+06 1e-1
-3.119e+05 2.0156e+06 1e-1
-3.3104e+05 2.0251e+06 0.11015
-3.2744e+05 2.0257e+06 0.10529
-3.2339e+05 2.0201e+06 0.081596
-3.0801e+05 1.9975e+06 0.067174
-3.3112e+05 2.0145e+06 0.10471
-3.0981e+05 2.0139e+06 1e-1
-3.2259e+05 1.9976e+06 0.10693
-3.1976e+05 2.0253e+06 0.074821
-3.1131e+05 2.0005e+06 0.083193
-3.0983e+05 1.9954e+06 0.086307
-3.0946e+05 2.0187e+06 1e-1
-3.1061e+05 2.0313e+06 1e-1
-3.168e+05 2.0324e+06 1e-1
-3.1426e+05 2.0149e+06 1e-1
-3.2284e+05 2.0158e+06 0.06001
-3.2232e+05 2.0235e+06 0.086306
-3.2552e+05 2.023e+06 0.097043
-3.1597e+05 2.0245e+06 1e-1
-3.3106e+05 2.0066e+06 0.11521
-3.1338e+05 1.9988e+06 0.094593
-3.2964e+05 2.0236e+06 0.10654
-3.0783e+05 2.0255e+06 1e-1
-3.3062e+05 2.0273e+06 0.10982
-3.2062e+05 2.0048e+06 0.082184
-3.0991e+05 2.0242e+06 1e-1
-3.1515e+05 2.0319e+06 1e-1
-3.1141e+05 2.0179e+06 1e-1
-3.2171e+05 1.9999e+06 0.1001
-3.3026e+05 2.0186e+06 0.10324
-3.2928e+05 1.9998e+06 0.12375
-3.1079e+05 2.0221e+06 1e-1
-3.282e+05 2.0071e+06 0.097955
-3.2851e+05 2.0277e+06 0.10788
-3.2161e+05 2.012e+06 0.04215
-3.278e+05 2.0033e+06 0.10781
-3.2616e+05 2.0324e+06 0.10174
-3.3241e+05 2.0212e+06 0.11114
-3.1779e+05 1.9993e+06 0.099464
-3.3278e+05 2.0242e+06 0.11268
-3.1487e+05 1.9966e+06 0.10075
-3.2064e+05 2.014e+06 1e-1
-3.0841e+05 2.0038e+06 0.054571
-3.2065e+05 1.9963e+06 0.10538
-3.1665e+05 2.0214e+06 1e-1
-3.1066e+05 2.0271e+06 1e-1
-3.2547e+05 2.0023e+06 0.10186
-3.0789e+05 2.0176e+06 1e-1
-3.2845e+05 2.0126e+06 0.090841
-3.289e+05 2.0107e+06 0.094602
-3.316e+05 2.0048e+06 0.12209
-3.2522e+05 2.01e+06 0.072349
-3.3063e+05 1.9954e+06 0.13466
-3.3189e+05 2.0305e+06 0.1101
-3.311e+05 2.0335e+06 0.10567
-3.2226e+05 2.0217e+06 0.071668
-3.3261e+05 2.016e+06 0.11072
-3.24e+05 2.0263e+06 0.1003
-3.2725e+05 1.9982e+06 0.12008
-3.244e+05 2.008e+06 0.073879
-3.2918e+05 2.0168e+06 0.097582
-3.1557e+05 2.0026e+06 0.091601
-3.321e+05 2.0181e+06 0.1091
-3.1855e+05 2.0263e+06 1e-1
-3.1137e+05 2.0061e+06 0.074207
-3.2667e+05 2.0186e+06 0.090054
-3.1447e+05 2.0084e+06 0.072214
-3.2474e+05 2.0145e+06 0.071612
-3.3218e+05 2.0084e+06 0.11684
-3.3084e+05 2.0101e+06 0.10658
-3.2253e+05 2.0082e+06 0.066397
-3.2565e+05 2.0291e+06 0.10436
-3.3178e+05 2.0122e+06 0.10898
-3.2408e+05 2.0182e+06 0.067051
-3.2078e+05 2.0287e+06 0.096759
-3.2572e+05 2.0249e+06 0.1016
-3.0806e+05 2.0081e+06 1e-1
-3.2147e+05 2.0305e+06 0.092647
-3.2537e+05 2e+06 0.10902
-3.269e+05 2.0276e+06 0.10543
-3.2637e+05 2.0154e+06 0.082328
-3.2973e+05 2.0202e+06 0.10334
-3.1727e+05 2.0295e+06 1e-1
-3.1329e+05 2.0298e+06 1e-1
-3.1951e+05 2.0007e+06 0.096925
-3.2858e+05 2.03e+06 0.10701
-3.2071e+05 2.0178e+06 1e-1
-3.1211e+05 2.0081e+06 0.069199
-3.0949e+05 2.0304e+06 1e-1
-3.2673e+05 2.0304e+06 0.1044
-3.1269e+05 2.0193e+06 1e-1
-3.2522e+05 1.9959e+06 0.11807
-3.1893e+05 2.0087e+06 0.062033
-3.1935e+05 2.0204e+06 1e-1
-3.1567e+05 2.0162e+06 1e-1
-3.132e+05 2.0116e+06 1e-1
-3.1723e+05 2.0229e+06 1e-1
-3.2902e+05 2.0018e+06 0.1178
-3.2416e+05 2.0297e+06 0.10195
-3.2879e+05 2.0248e+06 0.10626
-3.1444e+05 2.0287e+06 1e-1
-3.1484e+05 2.0062e+06 0.080908
-3.275e+05 2.0094e+06 0.087612
-3.2899e+05 2.0317e+06 0.10579
-3.2814e+05 2.0212e+06 0.10041
-3.3087e+05 2.0212e+06 0.10727
-3.1388e+05 2.0312e+06 1e-1
-3.1846e+05 2.0311e+06 1e-1
-3.0873e+05 2.0269e+06 1e-1
-3.2498e+05 2.0212e+06 0.090791
-3.3038e+05 2.0033e+06 0.12
-3.2209e+05 2.0318e+06 0.090244
-3.1827e+05 2.0063e+06 0.077414
-3.1101e+05 2.0252e+06 1e-1
-3.2341e+05 2.0323e+06 0.09384
-3.1904e+05 2.0028e+06 0.091059
-3.0757e+05 2.0019e+06 0.050732
-3.1882e+05 2.0153e+06 1e-1
-3.1732e+05 2.0032e+06 0.090602
-3.2074e+05 2.0239e+06 0.067842
-3.0938e+05 2.0227e+06 1e-1
-3.1521e+05 2.0006e+06 0.095491
-3.2589e+05 2.0065e+06 0.086697
-3.2363e+05 1.9994e+06 0.10549
-3.2323e+05 2.0112e+06 0.058334
-3.2738e+05 2.0053e+06 0.099167
-3.1909e+05 2.0234e+06 1e-1
-3.2999e+05 2.0132e+06 0.099349
-3.1533e+05 2.0209e+06 1e-1
-3.2443e+05 2.0413e+06 1e-1
-3.1065e+05 2.0508e+06 1e-1
-3.3277e+05 2.0341e+06 0.10646
-3.2983e+05 2.0515e+06 1e-1
-3.1437e+05 2.0373e+06 1e-1
-3.1765e+05 2.046e+06 1e-1
-3.2986e+05 2.0452e+06 1e-1
-3.2378e+05 2.0479e+06 1e-1
-3.1132e+05 2.0434e+06 1e-1
-3.2627e+05 2.0343e+06 0.096967
-3.3288e+05 2.0404e+06 0.0837
-3.2058e+05 2.0368e+06 1e-1
-3.0876e+05 2.0385e+06 1e-1
-3.1792e+05 2.0408e+06 1e-1
-3.2837e+05 2.0389e+06 1e-1
-3.1851e+05 2.0499e+06 1e-1
-3.2772e+05 2.0485e+06 1e-1
-3.2143e+05 2.0442e+06 1e-1
-3.1457e+05 2.0487e+06 1e-1
-3.1143e+05 2.0333e+06 1e-1
-3.1866e+05 2.0325e+06 1e-1
-3.0902e+05 2.0464e+06 1e-1
-3.3294e+05 2.0463e+06 1e-1
-3.2609e+05 2.0447e+06 1e-1
-3.2378e+05 2.051e+06 1e-1
-3.2177e+05 2.0332e+06 0.075457
-3.1495e+05 2.0431e+06 1e-1
-3.2375e+05 2.0378e+06 1e-1
-3.0774e+05 2.0431e+06 1e-1
-3.3061e+05 2.0487e+06 1e-1
-3.296e+05 2.0329e+06 0.1047
-3.2057e+05 2.0476e+06 1e-1
-3.2968e+05 2.0416e+06 1e-1
-3.2112e+05 2.0401e+06 1e-1
-3.3157e+05 2.0375e+06 0.095781
-3.1311e+05 2.0406e+06 1e-1
-3.1512e+05 2.034e+06 1e-1
-3.2744e+05 2.0511e+06 1e-1
-3.1232e+05 2.0461e+06 1e-1
-3.1788e+05 2.0379e+06 1e-1
-3.2108e+05 2.0506e+06 1e-1
-3.2711e+05 2.042e+06 1e-1
-3.2935e+05 2.0357e+06 0.09589
-3.1881e+05 2.0434e+06 1e-1
-3.1091e+05 2.0368e+06 1e-1
-3.1584e+05 2.0508e+06 1e-1
-3.1516e+05 2.046e+06 1e-1
-3.0958e+05 2.0412e+06 1e-1
-3.2567e+05 2.0495e+06 1e-1
-3.0841e+05 2.0356e+06 1e-1
-3.237e+05 2.0452e+06 1e-1
-3.2611e+05 2.0393e+06 1e-1
-3.168e+05 2.0484e+06 1e-1
-3.1814e+05 2.0351e+06 1e-1
-3.131e+05 2.0506e+06 1e-1
-3.3144e+05 2.0436e+06 1e-1
-3.2775e+05 2.0461e+06 1e-1
-3.3204e+05 2.0502e+06 1e-1
-3.1566e+05 2.0393e+06 1e-1
-3.3077e+05 2.0395e+06 0.070508
-3.2666e+05 2.0371e+06 0.068604
-3.1986e+05 2.0518e+06 1e-1
-3.0878e+05 2.049e+06 1e-1
-3.2241e+05 2.0422e+06 1e-1
-3.2947e+05 2.0498e+06 1e-1
-3.2764e+05 2.0313e+06 0.10466
-3.2275e+05 2.0493e+06 1e-1
-3.259e+05 2.0472e+06 1e-1
-3.321e+05 2.0322e+06 0.10841
-3.1137e+05 2.0386e+06 1e-1
-3.2377e+05 2.0356e+06 0.080234
-3.3105e+05 2.035e+06 0.10267
-3.1981e+05 2.0459e+06 1e-1
-3.2961e+05 2.0471e+06 1e-1
-3.2798e+05 2.0436e+06 1e-1
-3.1225e+05 2.0313e+06 1e-1
-3.1754e+05 2.052e+06 1e-1
-3.2044e+05 2.0342e+06 1e-1
-3.1215e+05 2.0487e+06 1e-1
-3.1318e+05 2.0349e+06 1e-1
-3.2538e+05 2.0518e+06 1e-1
-3.1051e+05 2.0523e+06 1e-1
-3.0934e+05 2.0445e+06 1e-1
-3.1906e+05 2.0392e+06 1e-1
-3.2214e+05 2.0465e+06 1e-1
-3.129e+05 2.0446e+06 1e-1
-3.0923e+05 2.0324e+06 1e-1
-3.2332e+05 2.0395e+06 1e-1
-3.2468e+05 2.0327e+06 0.096903
-3.2453e+05 2.0431e+06 1e-1
-3.1592e+05 2.0359e+06 1e-1
-3.2019e+05 2.0421e+06 1e-1
-3.3104e+05 2.0463e+06 1e-1
-3.1703e+05 2.0441e+06 1e-1
-3.2046e+05 2.0318e+06 0.083198
-3.1421e+05 2.0519e+06 1e-1
-3.1882e+05 2.0484e+06 1e-1
-3.2277e+05 2.0525e+06 1e-1
-3.1321e+05 2.0427e+06 1e-1
-3.3215e+05 2.0417e+06 1e-1
-3.2191e+05 2.0377e+06 1e-1
-3.0932e+05 2.0511e+06 1e-1
-3.1568e+05 2.0417e+06 1e-1
-3.2849e+05 2.0407e+06 1e-1
-3.103e+05 2.0479e+06 1e-1
-3.277e+05 2.0331e+06 0.10211
-3.304e+05 2.031e+06 0.10838
-3.218e+05 2.0351e+06 1e-1
-3.3273e+05 2.0446e+06 1e-1
-3.1348e+05 2.0328e+06 1e-1
-3.1133e+05 2.0415e+06 1e-1
-3.3085e+05 2.0501e+06 1e-1
-3.2972e+05 2.0435e+06 1e-1
-3.3163e+05 2.0516e+06 1e-1
-3.2968e+05 2.0375e+06 0.086249
-3.107e+05 2.0462e+06 1e-1
-3.251e+05 2.0459e+06 1e-1
-3.2001e+05 2.0494e+06 1e-1
-3.1312e+05 2.0388e+06 1e-1
-3.1355e+05 2.0475e+06 1e-1
-3.2855e+05 2.0519e+06 1e-1
-3.1061e+05 2.0313e+06 1e-1
-3.168e+05 2.0324e+06 1e-1
-3.2435e+05 2.0494e+06 1e-1
-3.3252e+05 2.036e+06 0.10218
-3.1185e+05 2.0514e+06 1e-1
-3.1021e+05 2.0349e+06 1e-1
-3.2693e+05 2.0523e+06 1e-1
-3.2304e+05 2.0437e+06 1e-1
-3.2584e+05 2.0407e+06 1e-1
-3.1733e+05 2.0424e+06 1e-1
-3.2715e+05 2.0498e+06 1e-1
-3.2604e+05 2.043e+06 1e-1
-3.2546e+05 2.036e+06 0.092116
-3.1702e+05 2.0497e+06 1e-1
-3.1515e+05 2.0319e+06 1e-1
-3.0963e+05 2.0426e+06 1e-1
-3.1552e+05 2.0476e+06 1e-1
-3.1445e+05 2.0501e+06 1e-1
-3.2129e+05 2.052e+06 1e-1
-3.1878e+05 2.0366e+06 1e-1
-3.1892e+05 2.0469e+06 1e-1
-3.2863e+05 2.0423e+06 1e-1
-3.1716e+05 2.0393e+06 1e-1
-3.0938e+05 2.0369e+06 1e-1
-3.2919e+05 2.0483e+06 1e-1
-3.1601e+05 2.0378e+06 1e-1
-3.2064e+05 2.0385e+06 1e-1
-3.2225e+05 2.0479e+06 1e-1
-3.2881e+05 2.0343e+06 0.10048
-3.2616e+05 2.0324e+06 0.10174
-3.3189e+05 2.0476e+06 1e-1
-3.1961e+05 2.0506e+06 1e-1
-3.2231e+05 2.0507e+06 1e-1
-3.1972e+05 2.0409e+06 1e-1
-3.311e+05 2.0448e+06 1e-1
-3.2812e+05 2.0372e+06 0.078512
-3.2717e+05 2.04e+06 1e-1
-3.0797e+05 2.0455e+06 1e-1
-3.1615e+05 2.0522e+06 1e-1
-3.2006e+05 2.0432e+06 1e-1
-3.2748e+05 2.0354e+06 0.092381
-3.1863e+05 2.045e+06 1e-1
-3.2552e+05 2.0379e+06 1e-1
-3.115e+05 2.0449e+06 1e-1
-3.2458e+05 2.0396e+06 1e-1
-3.1716e+05 2.0343e+06 1e-1
-3.1638e+05 2.0455e+06 1e-1
-3.2249e+05 2.0366e+06 1e-1
-3.311e+05 2.0335e+06 0.10567
-3.0849e+05 2.0401e+06 1e-1
-3.1274e+05 2.0367e+06 1e-1
-3.2114e+05 2.0456e+06 1e-1
-3.1428e+05 2.0416e+06 1e-1
-3.2703e+05 2.0384e+06 1e-1
-3.2646e+05 2.0485e+06 1e-1
-3.2618e+05 2.0507e+06 1e-1
-3.0818e+05 2.0416e+06 1e-1
-3.2843e+05 2.0506e+06 1e-1
-3.157e+05 2.0492e+06 1e-1
-3.265e+05 2.046e+06 1e-1
-3.2841e+05 2.0451e+06 1e-1
-3.2836e+05 2.0473e+06 1e-1
-3.2291e+05 2.0408e+06 1e-1
-3.2518e+05 2.0483e+06 1e-1
-3.1893e+05 2.0421e+06 1e-1
-3.1445e+05 2.0357e+06 1e-1
-3.1455e+05 2.0448e+06 1e-1
-3.2507e+05 2.0505e+06 1e-1
-3.3252e+05 2.0429e+06 1e-1
-3.3101e+05 2.0408e+06 1e-1
-3.1335e+05 2.0493e+06 1e-1
-3.3072e+05 2.0363e+06 0.097356
-3.2357e+05 2.0424e+06 1e-1
-3.167e+05 2.0469e+06 1e-1
-3.0812e+05 2.052e+06 1e-1
-3.297e+05 2.0396e+06 0.084428
-3.319e+05 2.0393e+06 0.086093
-3.215e+05 2.0492e+06 1e-1
-3.0825e+05 2.034e+06 1e-1
-3.2241e+05 2.0451e+06 1e-1
-3.117e+05 2.0354e+06 1e-1
-3.3191e+05 2.049e+06 1e-1
-3.2347e+05 2.0464e+06 1e-1
-3.1022e+05 2.0397e+06 1e-1
-3.1954e+05 2.0354e+06 1e-1
-3.1859e+05 2.0514e+06 1e-1
-3.137e+05 2.0458e+06 1e-1
-3.1186e+05 2.05e+06 1e-1
-3.1898e+05 2.0341e+06 1e-1
-3.2478e+05 2.0444e+06 1e-1
-3.1465e+05 2.0387e+06 1e-1
-3.3199e+05 2.0455e+06 1e-1
-3.1015e+05 2.0495e+06 1e-1
-3.249e+05 2.0342e+06 0.093028
-3.2722e+05 2.0449e+06 1e-1
-3.1296e+05 2.0517e+06 1e-1
-3.1731e+05 2.0363e+06 1e-1
-3.178e+05 2.0476e+06 1e-1
-3.1614e+05 2.043e+06 1e-1
-3.1741e+05 2.0509e+06 1e-1
-3.3108e+05 2.0423e+06 1e-1
-3.3071e+05 2.0386e+06 0.085552
-3.2711e+05 2.0473e+06 1e-1
-3.1183e+05 2.0399e+06 1e-1
-3.1013e+05 2.0381e+06 1e-1
-3.3052e+05 2.0475e+06 1e-1
-3.2839e+05 2.0494e+06 1e-1
-3.1647e+05 2.0404e+06 1e-1
-3.2899e+05 2.0317e+06 0.10579
-3.255e+05 2.042e+06 1e-1
-3.2002e+05 2.033e+06 0.06075
-3.2144e+05 2.043e+06 1e-1
-3.0833e+05 2.0502e+06 1e-1
-3.1785e+05 2.049e+06 1e-1
-3.2906e+05 2.046e+06 1e-1
-3.1464e+05 2.0402e+06 1e-1
-3.0826e+05 2.0478e+06 1e-1
-3.0926e+05 2.0524e+06 1e-1
-3.213e+05 2.0415e+06 1e-1
-3.2209e+05 2.0318e+06 0.090244
-3.22e+05 2.0392e+06 1e-1
-3.2341e+05 2.0323e+06 0.09384
-3.1174e+05 2.0474e+06 1e-1
-3.1998e+05 2.0445e+06 1e-1
-3.1939e+05 2.0378e+06 1e-1
-3.2998e+05 2.0343e+06 0.10262
-3.2351e+05 2.0339e+06 0.085347
-3.2469e+05 2.0471e+06 1e-1
-3.1574e+05 2.0444e+06 1e-1
-3.2689e+05 2.0437e+06 1e-1
-3.2135e+05 2.0533e+06 1e-1
-3.2528e+05 2.0623e+06 1e-1
-3.2983e+05 2.0515e+06 1e-1
-3.1435e+05 2.059e+06 1e-1
-3.1898e+05 2.0642e+06 1e-1
-3.2867e+05 2.0571e+06 1e-1
-3.3032e+05 2.063e+06 1e-1
-3.2095e+05 2.0589e+06 1e-1
-3.1569e+05 2.0538e+06 1e-1
-3.1059e+05 2.0626e+06 1e-1
-3.246e+05 2.0667e+06 1e-1
-3.1072e+05 2.0556e+06 1e-1
-3.2584e+05 2.0535e+06 1e-1
-3.1475e+05 2.0637e+06 1e-1
-3.289e+05 2.0665e+06 1e-1
-3.2484e+05 2.0582e+06 1e-1
-3.3218e+05 2.0564e+06 1e-1
-3.177e+05 2.0567e+06 1e-1
-3.2246e+05 2.0637e+06 1e-1
-3.1788e+05 2.061e+06 1e-1
-3.3075e+05 2.0598e+06 1e-1
-3.0939e+05 2.059e+06 1e-1
-3.0989e+05 2.0655e+06 1e-1
-3.3251e+05 2.0649e+06 1e-1
-3.2378e+05 2.051e+06 1e-1
-3.2776e+05 2.0601e+06 1e-1
-3.2769e+05 2.0639e+06 1e-1
-3.1686e+05 2.0662e+06 1e-1
-3.2242e+05 2.0564e+06 1e-1
-3.2993e+05 2.0546e+06 1e-1
-3.1384e+05 2.0561e+06 1e-1
-3.2276e+05 2.0611e+06 1e-1
-3.1266e+05 2.053e+06 1e-1
-3.1325e+05 2.0616e+06 1e-1
-3.1862e+05 2.0541e+06 1e-1
-3.1239e+05 2.0649e+06 1e-1
-3.0842e+05 2.0535e+06 1e-1
-3.2021e+05 2.0617e+06 1e-1
-3.1204e+05 2.0581e+06 1e-1
-3.2636e+05 2.0561e+06 1e-1
-3.0817e+05 2.0615e+06 1e-1
-3.2541e+05 2.0645e+06 1e-1
-3.1692e+05 2.063e+06 1e-1
-3.3103e+05 2.0663e+06 1e-1
-3.2006e+05 2.0558e+06 1e-1
-3.3227e+05 2.0542e+06 1e-1
-3.2352e+05 2.054e+06 1e-1
-3.2858e+05 2.0621e+06 1e-1
-3.1115e+05 2.0605e+06 1e-1
-3.1553e+05 2.0612e+06 1e-1
-3.3225e+05 2.0586e+06 1e-1
-3.1897e+05 2.0666e+06 1e-1
-3.2815e+05 2.0531e+06 1e-1
-3.188e+05 2.0587e+06 1e-1
-3.2952e+05 2.0647e+06 1e-1
-3.27e+05 2.0658e+06 1e-1
-3.2571e+05 2.0601e+06 1e-1
-3.2692e+05 2.0583e+06 1e-1
-3.2267e+05 2.0658e+06 1e-1
-3.3058e+05 2.0576e+06 1e-1
-3.3141e+05 2.0615e+06 1e-1
-3.208e+05 2.065e+06 1e-1
-3.2296e+05 2.0589e+06 1e-1
-3.1563e+05 2.0572e+06 1e-1
-3.1669e+05 2.059e+06 1e-1
-3.0899e+05 2.0569e+06 1e-1
-3.0902e+05 2.0638e+06 1e-1
-3.2815e+05 2.0554e+06 1e-1
-3.1986e+05 2.0518e+06 1e-1
-3.2469e+05 2.0562e+06 1e-1
-3.1369e+05 2.0658e+06 1e-1
-3.2915e+05 2.059e+06 1e-1
-3.1607e+05 2.0551e+06 1e-1
-3.3266e+05 2.0599e+06 1e-1
-3.1754e+05 2.052e+06 1e-1
-3.2381e+05 2.0623e+06 1e-1
-3.3197e+05 2.0633e+06 1e-1
-3.2538e+05 2.0518e+06 1e-1
-3.1051e+05 2.0523e+06 1e-1
-3.1867e+05 2.0623e+06 1e-1
-3.1319e+05 2.0635e+06 1e-1
-3.2946e+05 2.0605e+06 1e-1
-3.1982e+05 2.06e+06 1e-1
-3.2735e+05 2.0614e+06 1e-1
-3.1744e+05 2.0644e+06 1e-1
-3.1314e+05 2.0597e+06 1e-1
-3.3082e+05 2.0532e+06 1e-1
-3.1367e+05 2.0544e+06 1e-1
-3.1137e+05 2.0666e+06 1e-1
-3.2109e+05 2.0633e+06 1e-1
-3.2379e+05 2.0647e+06 1e-1
-3.1421e+05 2.0519e+06 1e-1
-3.2102e+05 2.0572e+06 1e-1
-3.3146e+05 2.0644e+06 1e-1
-3.2277e+05 2.0525e+06 1e-1
-3.3076e+05 2.0561e+06 1e-1
-3.0932e+05 2.0511e+06 1e-1
-3.1044e+05 2.0644e+06 1e-1
-3.2133e+05 2.0603e+06 1e-1
-3.1534e+05 2.0654e+06 1e-1
-3.2413e+05 2.06e+06 1e-1
-3.0962e+05 2.061e+06 1e-1
-3.1345e+05 2.0577e+06 1e-1
-3.225e+05 2.0626e+06 1e-1
-3.1215e+05 2.0566e+06 1e-1
-3.2901e+05 2.0634e+06 1e-1
-3.2128e+05 2.0548e+06 1e-1
-3.2625e+05 2.0634e+06 1e-1
-3.1236e+05 2.0548e+06 1e-1
-3.2591e+05 2.0664e+06 1e-1
-3.2527e+05 2.055e+06 1e-1
-3.1076e+05 2.0572e+06 1e-1
-3.1419e+05 2.0622e+06 1e-1
-3.1951e+05 2.0573e+06 1e-1
-3.236e+05 2.0574e+06 1e-1
-3.2826e+05 2.0653e+06 1e-1
-3.2002e+05 2.0544e+06 1e-1
-3.3163e+05 2.0516e+06 1e-1
-3.0994e+05 2.0538e+06 1e-1
-3.2683e+05 2.0547e+06 1e-1
-3.1862e+05 2.0554e+06 1e-1
-3.2437e+05 2.0528e+06 1e-1
-3.3009e+05 2.0617e+06 1e-1
-3.2855e+05 2.0519e+06 1e-1
-3.1257e+05 2.0663e+06 1e-1
-3.1178e+05 2.0618e+06 1e-1
-3.1613e+05 2.064e+06 1e-1
-3.1952e+05 2.0654e+06 1e-1
-3.1715e+05 2.0536e+06 1e-1
-3.1185e+05 2.0514e+06 1e-1
-3.2928e+05 2.056e+06 1e-1
-3.2454e+05 2.0612e+06 1e-1
-3.2468e+05 2.0635e+06 1e-1
-3.2693e+05 2.0523e+06 1e-1
-3.1163e+05 2.0635e+06 1e-1
-3.1403e+05 2.0607e+06 1e-1
-3.2731e+05 2.0572e+06 1e-1
-3.2933e+05 2.0531e+06 1e-1
-3.1081e+05 2.059e+06 1e-1
-3.2601e+05 2.0577e+06 1e-1
-3.1675e+05 2.0617e+06 1e-1
-3.0944e+05 2.0624e+06 1e-1
-3.0853e+05 2.0599e+06 1e-1
-3.2669e+05 2.0646e+06 1e-1
-3.0916e+05 2.0553e+06 1e-1
-3.2129e+05 2.052e+06 1e-1
-3.2755e+05 2.0627e+06 1e-1
-3.1803e+05 2.0655e+06 1e-1
-3.2215e+05 2.058e+06 1e-1
-3.0806e+05 2.0631e+06 1e-1
-3.1667e+05 2.0604e+06 1e-1
-3.312e+05 2.0586e+06 1e-1
-3.2979e+05 2.0658e+06 1e-1
-3.1483e+05 2.055e+06 1e-1
-3.1767e+05 2.0582e+06 1e-1
-3.2368e+05 2.0554e+06 1e-1
-3.1575e+05 2.0668e+06 1e-1
-3.3209e+05 2.0529e+06 1e-1
-3.2786e+05 2.0591e+06 1e-1
-3.2501e+05 2.0656e+06 1e-1
-3.3183e+05 2.0657e+06 1e-1
-3.196e+05 2.0631e+06 1e-1
-3.311e+05 2.0547e+06 1e-1
-3.1387e+05 2.0647e+06 1e-1
-3.1909e+05 2.0611e+06 1e-1
-3.2676e+05 2.0595e+06 1e-1
-3.1615e+05 2.0522e+06 1e-1
-3.1811e+05 2.0634e+06 1e-1
-3.1571e+05 2.0626e+06 1e-1
-3.0845e+05 2.0581e+06 1e-1
-3.2855e+05 2.0543e+06 1e-1
-3.3174e+05 2.0575e+06 1e-1
-3.2232e+05 2.054e+06 1e-1
-3.1773e+05 2.0596e+06 1e-1
-3.2198e+05 2.0648e+06 1e-1
-3.087e+05 2.0663e+06 1e-1
-3.324e+05 2.0612e+06 1e-1
-3.2141e+05 2.0661e+06 1e-1
-3.2549e+05 2.059e+06 1e-1
-3.2937e+05 2.0579e+06 1e-1
-3.246e+05 2.0541e+06 1e-1
-3.1136e+05 2.0538e+06 1e-1
-3.2235e+05 2.0599e+06 1e-1
-3.1554e+05 2.0585e+06 1e-1
-3.2018e+05 2.0663e+06 1e-1
-3.2601e+05 2.0613e+06 1e-1
-3.3125e+05 2.0625e+06 1e-1
-3.2387e+05 2.0659e+06 1e-1
-3.306e+05 2.0608e+06 1e-1
-3.1987e+05 2.0584e+06 1e-1
-3.2353e+05 2.0635e+06 1e-1
-3.1543e+05 2.0599e+06 1e-1
-3.2838e+05 2.0609e+06 1e-1
-3.0998e+05 2.0599e+06 1e-1
-3.2949e+05 2.0626e+06 1e-1
-3.1859e+05 2.0514e+06 1e-1
-3.1643e+05 2.0564e+06 1e-1
-3.26e+05 2.0654e+06 1e-1
-3.1743e+05 2.0552e+06 1e-1
-3.2e+05 2.0642e+06 1e-1
-3.1651e+05 2.0652e+06 1e-1
-3.1866e+05 2.0527e+06 1e-1
-3.3062e+05 2.0652e+06 1e-1
-3.3168e+05 2.0595e+06 1e-1
-3.2726e+05 2.0536e+06 1e-1
-3.1471e+05 2.0664e+06 1e-1
-3.3034e+05 2.0641e+06 1e-1
-3.1199e+05 2.0594e+06 1e-1
-3.2787e+05 2.0663e+06 1e-1
-3.2139e+05 2.0561e+06 1e-1
-3.125e+05 2.0607e+06 1e-1
-3.0965e+05 2.0578e+06 1e-1
-3.2408e+05 2.0589e+06 1e-1
-3.1296e+05 2.0517e+06 1e-1
-3.3016e+05 2.059e+06 1e-1
-3.1512e+05 2.0563e+06 1e-1
-3.3156e+05 2.0605e+06 1e-1
-3.2004e+05 2.0531e+06 1e-1
-3.1302e+05 2.0587e+06 1e-1
-3.3269e+05 2.064e+06 1e-1
-3.2674e+05 2.0605e+06 1e-1
-3.2158e+05 2.0618e+06 1e-1
-3.2821e+05 2.0581e+06 1e-1
-3.1007e+05 2.0635e+06 1e-1
-3.2975e+05 2.057e+06 1e-1
-3.1878e+05 2.0565e+06 1e-1
-3.1781e+05 2.0668e+06 1e-1
-3.3219e+05 2.0622e+06 1e-1
-3.0898e+05 2.0649e+06 1e-1
-3.286e+05 2.0643e+06 1e-1
-3.2852e+05 2.0599e+06 1e-1
-3.318e+05 2.0555e+06 1e-1
-3.0926e+05 2.0524e+06 1e-1
-3.1121e+05 2.0654e+06 1e-1
-3.2248e+05 2.0551e+06 1e-1
-3.1024e+05 2.0665e+06 1e-1
-3.2815e+05 2.0564e+06 1e-1
-3.1465e+05 2.0575e+06 1e-1
-3.1275e+05 2.0625e+06 1e-1
-3.1661e+05 2.0577e+06 1e-1
-3.1866e+05 2.0601e+06 1e-1
-3.1448e+05 2.0533e+06 1e-1
-3.2645e+05 2.0623e+06 1e-1
-3.3107e+05 2.0635e+06 1e-1
-3.1064e+05 2.0616e+06 1e-1
-3.1761e+05 2.0622e+06 1e-1
-3.1847e+05 2.0575e+06 1e-1
-3.0995e+05 2.0564e+06 1e-1
-3.2195e+05 2.0591e+06 1e-1
-3.251e+05 2.0571e+06 1e-1
-3.218e+05 2.07e+06 1e-1
-3.114e+05 2.0775e+06 1e-1
-3.2966e+05 2.0753e+06 1e-1
-3.123e+05 2.0677e+06 1e-1
-3.3255e+05 2.0676e+06 1e-1
-3.1767e+05 2.0752e+06 1e-1
-3.2342e+05 2.0756e+06 1e-1
-3.2723e+05 2.0699e+06 1e-1
-3.1347e+05 2.0727e+06 1e-1
-3.1681e+05 2.0691e+06 1e-1
-3.321e+05 2.0717e+06 1e-1
-3.246e+05 2.0667e+06 1e-1
-3.289e+05 2.0665e+06 1e-1
-3.2641e+05 2.0736e+06 1e-1
-3.2046e+05 2.0774e+06 1e-1
-3.2673e+05 2.0769e+06 1e-1
-3.086e+05 2.0689e+06 1e-1
-3.2064e+05 2.0736e+06 1e-1
-3.1476e+05 2.0766e+06 1e-1
-3.2092e+05 2.0671e+06 1e-1
-3.1083e+05 2.0746e+06 1e-1
-3.2911e+05 2.0724e+06 1e-1
-3.1663e+05 2.0724e+06 1e-1
-3.2345e+05 2.0727e+06 1e-1
-3.3003e+05 2.0693e+06 1e-1
-3.106e+05 2.0711e+06 1e-1
-3.2454e+05 2.0695e+06 1e-1
-3.3204e+05 2.0744e+06 1e-1
-3.1686e+05 2.0662e+06 1e-1
-3.1908e+05 2.0712e+06 1e-1
-3.1408e+05 2.0699e+06 1e-1
-3.2682e+05 2.0679e+06 1e-1
-3.131e+05 2.075e+06 1e-1
-3.153e+05 2.0744e+06 1e-1
-3.1908e+05 2.0686e+06 1e-1
-3.1841e+05 2.0775e+06 1e-1
-3.1481e+05 2.0676e+06 1e-1
-3.2565e+05 2.0715e+06 1e-1
-3.2469e+05 2.0771e+06 1e-1
-3.3103e+05 2.0663e+06 1e-1
-3.2141e+05 2.0755e+06 1e-1
-3.2778e+05 2.0752e+06 1e-1
-3.1855e+05 2.0732e+06 1e-1
-3.0976e+05 2.0763e+06 1e-1
-3.2558e+05 2.0753e+06 1e-1
-3.2294e+05 2.0681e+06 1e-1
-3.3139e+05 2.076e+06 1e-1
-3.2858e+05 2.0767e+06 1e-1
-3.2265e+05 2.0772e+06 1e-1
-3.3203e+05 2.0698e+06 1e-1
-3.2847e+05 2.0685e+06 1e-1
-3.1897e+05 2.0666e+06 1e-1
-3.1349e+05 2.0779e+06 1e-1
-3.107e+05 2.0691e+06 1e-1
-3.3043e+05 2.0736e+06 1e-1
-3.27e+05 2.0658e+06 1e-1
-3.1946e+05 2.0756e+06 1e-1
-3.224e+05 2.0741e+06 1e-1
-3.3028e+05 2.0711e+06 1e-1
-3.2267e+05 2.0658e+06 1e-1
-3.1658e+05 2.0767e+06 1e-1
-3.3014e+05 2.0773e+06 1e-1
-3.2731e+05 2.0722e+06 1e-1
-3.1244e+05 2.071e+06 1e-1
-3.218e+05 2.0721e+06 1e-1
-3.0876e+05 2.071e+06 1e-1
-3.2429e+05 2.0742e+06 1e-1
-3.1151e+05 2.0728e+06 1e-1
-3.1484e+05 2.0716e+06 1e-1
-3.0968e+05 2.0728e+06 1e-1
-3.234e+05 2.0709e+06 1e-1
-3.1369e+05 2.0658e+06 1e-1
-3.3014e+05 2.0676e+06 1e-1
-3.2881e+05 2.074e+06 1e-1
-3.1135e+05 2.0758e+06 1e-1
-3.1743e+05 2.0711e+06 1e-1
-3.2105e+05 2.0684e+06 1e-1
-3.0959e+05 2.0674e+06 1e-1
-3.2839e+05 2.0705e+06 1e-1
-3.1679e+05 2.074e+06 1e-1
-3.2625e+05 2.0689e+06 1e-1
-3.0906e+05 2.0744e+06 1e-1
-3.1294e+05 2.0765e+06 1e-1
-3.253e+05 2.0728e+06 1e-1
-3.1743e+05 2.0679e+06 1e-1
-3.125e+05 2.0692e+06 1e-1
-3.3151e+05 2.0686e+06 1e-1
-3.1137e+05 2.0666e+06 1e-1
-3.2494e+05 2.0683e+06 1e-1
-3.199e+05 2.0702e+06 1e-1
-3.157e+05 2.0701e+06 1e-1
-3.324e+05 2.0729e+06 1e-1
-3.2e+05 2.072e+06 1e-1
-3.1947e+05 2.0744e+06 1e-1
-3.1662e+05 2.078e+06 1e-1
-3.163e+05 2.0753e+06 1e-1
-3.3043e+05 2.0724e+06 1e-1
-3.3088e+05 2.0748e+06 1e-1
-3.1473e+05 2.073e+06 1e-1
-3.1841e+05 2.0698e+06 1e-1
-3.0864e+05 2.0762e+06 1e-1
-3.1614e+05 2.0679e+06 1e-1
-3.2591e+05 2.0664e+06 1e-1
-3.1435e+05 2.0753e+06 1e-1
-3.2751e+05 2.0732e+06 1e-1
-3.215e+05 2.0767e+06 1e-1
-3.2294e+05 2.0695e+06 1e-1
-3.278e+05 2.0775e+06 1e-1
-3.1194e+05 2.0741e+06 1e-1
-3.2904e+05 2.0694e+06 1e-1
-3.1398e+05 2.074e+06 1e-1
-3.1362e+05 2.0687e+06 1e-1
-3.1513e+05 2.0691e+06 1e-1
-3.1027e+05 2.0776e+06 1e-1
-3.1779e+05 2.0721e+06 1e-1
-3.2464e+05 2.076e+06 1e-1
-3.3227e+05 2.077e+06 1e-1
-3.0967e+05 2.0701e+06 1e-1
-3.2425e+05 2.0719e+06 1e-1
-3.2671e+05 2.0758e+06 1e-1
-3.2793e+05 2.0675e+06 1e-1
-3.1257e+05 2.0663e+06 1e-1
-3.2379e+05 2.0777e+06 1e-1
-3.2738e+05 2.0687e+06 1e-1
-3.3123e+05 2.0674e+06 1e-1
-3.3035e+05 2.0762e+06 1e-1
-3.2569e+05 2.0764e+06 1e-1
-3.2622e+05 2.0704e+06 1e-1
-3.1154e+05 2.0701e+06 1e-1
-3.1986e+05 2.0677e+06 1e-1
-3.1829e+05 2.0762e+06 1e-1
-3.1942e+05 2.0768e+06 1e-1
-3.3131e+05 2.0708e+06 1e-1
-3.2532e+05 2.0741e+06 1e-1
-3.2867e+05 2.0757e+06 1e-1
-3.2328e+05 2.0669e+06 1e-1
-3.2768e+05 2.0762e+06 1e-1
-3.1568e+05 2.0774e+06 1e-1
-3.2624e+05 2.0725e+06 1e-1
-3.315e+05 2.0735e+06 1e-1
-3.1363e+05 2.0714e+06 1e-1
-3.0851e+05 2.0677e+06 1e-1
-3.1354e+05 2.0671e+06 1e-1
-3.3253e+05 2.0688e+06 1e-1
-3.2047e+05 2.0763e+06 1e-1
-3.1803e+05 2.0655e+06 1e-1
-3.2253e+05 2.0761e+06 1e-1
-3.0981e+05 2.075e+06 1e-1
-3.311e+05 2.077e+06 1e-1
-3.2478e+05 2.0706e+06 1e-1
-3.0795e+05 2.0699e+06 1e-1
-3.2366e+05 2.0766e+06 1e-1
-3.2979e+05 2.0658e+06 1e-1
-3.2675e+05 2.0746e+06 1e-1
-3.1079e+05 2.0678e+06 1e-1
-3.1575e+05 2.0668e+06 1e-1
-3.1972e+05 2.073e+06 1e-1
-3.205e+05 2.075e+06 1e-1
-3.1592e+05 2.0712e+06 1e-1
-3.0903e+05 2.0772e+06 1e-1
-3.2501e+05 2.0656e+06 1e-1
-3.158e+05 2.0733e+06 1e-1
-3.3199e+05 2.0752e+06 1e-1
-3.3183e+05 2.0657e+06 1e-1
-3.2385e+05 2.0688e+06 1e-1
-3.2084e+05 2.0711e+06 1e-1
-3.181e+05 2.0742e+06 1e-1
-3.2257e+05 2.0729e+06 1e-1
-3.2571e+05 2.0775e+06 1e-1
-3.2913e+05 2.0775e+06 1e-1
-3.1455e+05 2.0777e+06 1e-1
-3.1253e+05 2.0721e+06 1e-1
-3.0961e+05 2.0717e+06 1e-1
-3.1529e+05 2.0756e+06 1e-1
-3.2343e+05 2.0746e+06 1e-1
-3.1231e+05 2.0777e+06 1e-1
-3.181e+05 2.0686e+06 1e-1
-3.2705e+05 2.0711e+06 1e-1
-3.2955e+05 2.0685e+06 1e-1
-3.2285e+05 2.0718e+06 1e-1
-3.2208e+05 2.0673e+06 1e-1
-3.1389e+05 2.0769e+06 1e-1
-3.2921e+05 2.0676e+06 1e-1
-3.087e+05 2.0663e+06 1e-1
-3.2141e+05 2.0661e+06 1e-1
-3.1284e+05 2.0735e+06 1e-1
-3.1089e+05 2.0766e+06 1e-1
-3.1856e+05 2.0677e+06 1e-1
-3.1903e+05 2.0723e+06 1e-1
-3.0882e+05 2.0753e+06 1e-1
-3.1757e+05 2.0732e+06 1e-1
-3.2018e+05 2.0663e+06 1e-1
-3.297e+05 2.0743e+06 1e-1
-3.2387e+05 2.0659e+06 1e-1
-3.2977e+05 2.0702e+06 1e-1
-3.106e+05 2.0722e+06 1e-1
-3.2823e+05 2.0719e+06 1e-1
-3.0864e+05 2.0734e+06 1e-1
-3.295e+05 2.0733e+06 1e-1
-3.1062e+05 2.0734e+06 1e-1
-3.2942e+05 2.0764e+06 1e-1
-3.3261e+05 2.0759e+06 1e-1
-3.2204e+05 2.0688e+06 1e-1
-3.0969e+05 2.0687e+06 1e-1
-3.2151e+05 2.0744e+06 1e-1
-3.2333e+05 2.0736e+06 1e-1
-3.3085e+05 2.0698e+06 1e-1
-3.1742e+05 2.077e+06 1e-1
-3.3191e+05 2.0666e+06 1e-1
-3.2166e+05 2.0733e+06 1e-1
-3.2937e+05 2.0715e+06 1e-1
-3.2245e+05 2.0751e+06 1e-1
-3.1471e+05 2.0664e+06 1e-1
-3.186e+05 2.0751e+06 1e-1
-3.2458e+05 2.075e+06 1e-1
-3.2787e+05 2.0663e+06 1e-1
-3.1544e+05 2.0723e+06 1e-1
-3.2806e+05 2.0742e+06 1e-1
-3.2696e+05 2.0668e+06 1e-1
-3.1159e+05 2.0688e+06 1e-1
-3.1157e+05 2.0715e+06 1e-1
-3.2392e+05 2.0678e+06 1e-1
-3.1381e+05 2.0761e+06 1e-1
-3.2227e+05 2.0709e+06 1e-1
-3.2805e+05 2.0694e+06 1e-1
-3.0852e+05 2.072e+06 1e-1
-3.1303e+05 2.0701e+06 1e-1
-3.1053e+05 2.0757e+06 1e-1
-3.2535e+05 2.0695e+06 1e-1
-3.1671e+05 2.0702e+06 1e-1
-3.3149e+05 2.0724e+06 1e-1
-3.1203e+05 2.0752e+06 1e-1
-3.2432e+05 2.0732e+06 1e-1
-3.3227e+05 2.0708e+06 1e-1
-3.3052e+05 2.0685e+06 1e-1
-3.1182e+05 2.0766e+06 1e-1
-3.2085e+05 2.0726e+06 1e-1
-3.1781e+05 2.0668e+06 1e-1
-3.1706e+05 2.0759e+06 1e-1
-3.2883e+05 2.0748e+06 1e-1
-3.2854e+05 2.0731e+06 1e-1
-3.1121e+05 2.0654e+06 1e-1
-3.1484e+05 2.0705e+06 1e-1
-3.302e+05 2.0668e+06 1e-1
-3.1024e+05 2.0665e+06 1e-1
-3.2576e+05 2.0674e+06 1e-1
-3.3112e+05 2.0717e+06 1e-1
-3.2097e+05 2.0696e+06 1e-1
-3.1678e+05 2.0672e+06 1e-1
-3.2382e+05 2.0699e+06 1e-1
-3.1426e+05 2.0722e+06 1e-1
-3.0982e+05 2.0739e+06 1e-1
-3.1572e+05 2.0763e+06 1e-1
-3.2008e+05 2.0691e+06 1e-1
-3.3019e+05 2.0847e+06 1e-1
-3.114e+05 2.0775e+06 1e-1
-3.2104e+05 2.0808e+06 1e-1
-3.087e+05 2.0859e+06 1e-1
-3.1502e+05 2.083e+06 1e-1
-3.2669e+05 2.0801e+06 1e-1
-3.1941e+05 2.0856e+06 1e-1
-3.2571e+05 2.0844e+06 1e-1
-3.107e+05 2.0819e+06 1e-1
-3.3043e+05 2.0808e+06 1e-1
-3.1341e+05 2.0861e+06 1e-1
-3.1738e+05 2.0793e+06 1e-1
-3.2213e+05 2.084e+06 1e-1
-3.2795e+05 2.0867e+06 1e-1
-3.3167e+05 2.0778e+06 1e-1
-3.1825e+05 2.0827e+06 1e-1
-3.2046e+05 2.0774e+06 1e-1
-3.2383e+05 2.0787e+06 1e-1
-3.2673e+05 2.0769e+06 1e-1
-3.1623e+05 2.0863e+06 1e-1
-3.2417e+05 2.0818e+06 1e-1
-3.1387e+05 2.0798e+06 1e-1
-3.0842e+05 2.0778e+06 1e-1
-3.2807e+05 2.0827e+06 1e-1
-3.2907e+05 2.0788e+06 1e-1
-3.1105e+05 2.0844e+06 1e-1
-3.3136e+05 2.0865e+06 1e-1
-3.2389e+05 2.0858e+06 1e-1
-3.0876e+05 2.0802e+06 1e-1
-3.1252e+05 2.083e+06 1e-1
-3.2012e+05 2.0839e+06 1e-1
-3.1679e+05 2.0841e+06 1e-1
-3.3255e+05 2.0811e+06 1e-1
-3.1159e+05 2.0797e+06 1e-1
-3.283e+05 2.0848e+06 1e-1
-3.0928e+05 2.0835e+06 1e-1
-3.3092e+05 2.0827e+06 1e-1
-3.1948e+05 2.0793e+06 1e-1
-3.1467e+05 2.085e+06 1e-1
-3.2606e+05 2.0827e+06 1e-1
-3.1659e+05 2.0814e+06 1e-1
-3.2863e+05 2.0807e+06 1e-1
-3.1841e+05 2.0775e+06 1e-1
-3.2984e+05 2.0863e+06 1e-1
-3.2104e+05 2.0853e+06 1e-1
-3.2469e+05 2.0771e+06 1e-1
-3.2247e+05 2.0822e+06 1e-1
-3.241e+05 2.0837e+06 1e-1
-3.2173e+05 2.0789e+06 1e-1
-3.0998e+05 2.0787e+06 1e-1
-3.2624e+05 2.0861e+06 1e-1
-3.1541e+05 2.0784e+06 1e-1
-3.2492e+05 2.0801e+06 1e-1
-3.2236e+05 2.0867e+06 1e-1
-3.2576e+05 2.0785e+06 1e-1
-3.3252e+05 2.0792e+06 1e-1
-3.2296e+05 2.0804e+06 1e-1
-3.3161e+05 2.084e+06 1e-1
-3.2265e+05 2.0772e+06 1e-1
-3.0821e+05 2.082e+06 1e-1
-3.306e+05 2.0791e+06 1e-1
-3.1415e+05 2.0816e+06 1e-1
-3.1349e+05 2.0779e+06 1e-1
-3.1928e+05 2.0811e+06 1e-1
-3.1278e+05 2.0846e+06 1e-1
-3.1847e+05 2.0841e+06 1e-1
-3.1782e+05 2.0864e+06 1e-1
-3.1658e+05 2.0767e+06 1e-1
-3.3014e+05 2.0773e+06 1e-1
-3.2929e+05 2.0835e+06 1e-1
-3.1212e+05 2.0813e+06 1e-1
-3.2941e+05 2.0819e+06 1e-1
-3.2706e+05 2.0837e+06 1e-1
-3.2098e+05 2.0824e+06 1e-1
-3.2751e+05 2.0788e+06 1e-1
-3.1013e+05 2.0858e+06 1e-1
-3.1176e+05 2.0859e+06 1e-1
-3.2739e+05 2.0817e+06 1e-1
-3.1552e+05 2.0801e+06 1e-1
-3.1009e+05 2.0805e+06 1e-1
-3.3131e+05 2.0855e+06 1e-1
-3.1792e+05 2.0806e+06 1e-1
-3.3169e+05 2.082e+06 1e-1
-3.1697e+05 2.0827e+06 1e-1
-3.1126e+05 2.0832e+06 1e-1
-3.1399e+05 2.0836e+06 1e-1
-3.2261e+05 2.085e+06 1e-1
-3.3189e+05 2.08e+06 1e-1
-3.0867e+05 2.0846e+06 1e-1
-3.2585e+05 2.0812e+06 1e-1
-3.1294e+05 2.0765e+06 1e-1
-3.1483e+05 2.0862e+06 1e-1
-3.2523e+05 2.0855e+06 1e-1
-3.2967e+05 2.0798e+06 1e-1
-3.2691e+05 2.0852e+06 1e-1
-3.2002e+05 2.0866e+06 1e-1
-3.1767e+05 2.0851e+06 1e-1
-3.1929e+05 2.0822e+06 1e-1
-3.1518e+05 2.0815e+06 1e-1
-3.2864e+05 2.0856e+06 1e-1
-3.0993e+05 2.0847e+06 1e-1
-3.1662e+05 2.078e+06 1e-1
-3.1577e+05 2.0848e+06 1e-1
-3.2512e+05 2.0834e+06 1e-1
-3.092e+05 2.0813e+06 1e-1
-3.1273e+05 2.0792e+06 1e-1
-3.2072e+05 2.0796e+06 1e-1
-3.2301e+05 2.0832e+06 1e-1
-3.2115e+05 2.0834e+06 1e-1
-3.2836e+05 2.0795e+06 1e-1
-3.1997e+05 2.0848e+06 1e-1
-3.1844e+05 2.0787e+06 1e-1
-3.215e+05 2.0767e+06 1e-1
-3.0861e+05 2.0789e+06 1e-1
-3.278e+05 2.0775e+06 1e-1
-3.2371e+05 2.0849e+06 1e-1
-3.1568e+05 2.0838e+06 1e-1
-3.2484e+05 2.0791e+06 1e-1
-3.2531e+05 2.0867e+06 1e-1
-3.1946e+05 2.078e+06 1e-1
-3.2401e+05 2.0808e+06 1e-1
-3.1288e+05 2.0803e+06 1e-1
-3.1027e+05 2.0776e+06 1e-1
-3.113e+05 2.0786e+06 1e-1
-3.3076e+05 2.0837e+06 1e-1
-3.3182e+05 2.083e+06 1e-1
-3.3227e+05 2.077e+06 1e-1
-3.2125e+05 2.0863e+06 1e-1
-3.1015e+05 2.083e+06 1e-1
-3.2473e+05 2.0845e+06 1e-1
-3.1353e+05 2.0853e+06 1e-1
-3.292e+05 2.0845e+06 1e-1
-3.2379e+05 2.0777e+06 1e-1
-3.0813e+05 2.0831e+06 1e-1
-3.3073e+05 2.0862e+06 1e-1
-3.2843e+05 2.0837e+06 1e-1
-3.3155e+05 2.0789e+06 1e-1
-3.3225e+05 2.0858e+06 1e-1
-3.2095e+05 2.0844e+06 1e-1
-3.258e+05 2.0796e+06 1e-1
-3.2183e+05 2.08e+06 1e-1
-3.3082e+05 2.0818e+06 1e-1
-3.2957e+05 2.0855e+06 1e-1
-3.2772e+05 2.0856e+06 1e-1
-3.1763e+05 2.0835e+06 1e-1
-3.3266e+05 2.0782e+06 1e-1
-3.1121e+05 2.0807e+06 1e-1
-3.2275e+05 2.0793e+06 1e-1
-3.2314e+05 2.0815e+06 1e-1
-3.1942e+05 2.0768e+06 1e-1
-3.2217e+05 2.0811e+06 1e-1
-3.3135e+05 2.0809e+06 1e-1
-3.1387e+05 2.0827e+06 1e-1
-3.206e+05 2.0785e+06 1e-1
-3.176e+05 2.0818e+06 1e-1
-3.1417e+05 2.0788e+06 1e-1
-3.2852e+05 2.0817e+06 1e-1
-3.1568e+05 2.0774e+06 1e-1
-3.2706e+05 2.0827e+06 1e-1
-3.2953e+05 2.081e+06 1e-1
-3.1208e+05 2.084e+06 1e-1
-3.1659e+05 2.0803e+06 1e-1
-3.1575e+05 2.0821e+06 1e-1
-3.2521e+05 2.0821e+06 1e-1
-3.1841e+05 2.0797e+06 1e-1
-3.1471e+05 2.0806e+06 1e-1
-3.2768e+05 2.0806e+06 1e-1
-3.311e+05 2.077e+06 1e-1
-3.2036e+05 2.0817e+06 1e-1
-3.3081e+05 2.0781e+06 1e-1
-3.0924e+05 2.0825e+06 1e-1
-3.2171e+05 2.0778e+06 1e-1
-3.2176e+05 2.0849e+06 1e-1
-3.1925e+05 2.0834e+06 1e-1
-3.2408e+05 2.0828e+06 1e-1
-3.0903e+05 2.0772e+06 1e-1
-3.2007e+05 2.0804e+06 1e-1
-3.1663e+05 2.0854e+06 1e-1
-3.267e+05 2.0781e+06 1e-1
-3.119e+05 2.0823e+06 1e-1
-3.2616e+05 2.0836e+06 1e-1
-3.1609e+05 2.0792e+06 1e-1
-3.2571e+05 2.0775e+06 1e-1
-3.2913e+05 2.0775e+06 1e-1
-3.1455e+05 2.0777e+06 1e-1
-3.2388e+05 2.0798e+06 1e-1
-3.228e+05 2.0783e+06 1e-1
-3.1037e+05 2.0838e+06 1e-1
-3.2502e+05 2.0811e+06 1e-1
-3.1847e+05 2.0817e+06 1e-1
-3.1883e+05 2.0865e+06 1e-1
-3.0954e+05 2.0796e+06 1e-1
-3.1231e+05 2.0777e+06 1e-1
-3.1263e+05 2.0855e+06 1e-1
-3.1301e+05 2.0817e+06 1e-1
-3.2666e+05 2.0791e+06 1e-1
-3.2898e+05 2.0826e+06 1e-1
-3.1064e+05 2.0796e+06 1e-1
-3.2189e+05 2.0828e+06 1e-1
-3.1389e+05 2.0769e+06 1e-1
-3.3212e+05 2.0847e+06 1e-1
-3.1188e+05 2.085e+06 1e-1
-3.1089e+05 2.0766e+06 1e-1
-3.3003e+05 2.0827e+06 1e-1
-3.3232e+05 2.0837e+06 1e-1
-3.2474e+05 2.0781e+06 1e-1
-3.2615e+05 2.0851e+06 1e-1
-3.3108e+05 2.0847e+06 1e-1
-3.2993e+05 2.0785e+06 1e-1
-3.1478e+05 2.0841e+06 1e-1
-3.2744e+05 2.0797e+06 1e-1
-3.1907e+05 2.0847e+06 1e-1
-3.2304e+05 2.086e+06 1e-1
-3.1096e+05 2.0863e+06 1e-1
-3.2455e+05 2.0863e+06 1e-1
-3.3083e+05 2.0799e+06 1e-1
-3.0942e+05 2.0854e+06 1e-1
-3.1313e+05 2.0837e+06 1e-1
-3.2894e+05 2.0865e+06 1e-1
-3.2712e+05 2.0862e+06 1e-1
-3.1856e+05 2.0857e+06 1e-1
-3.2312e+05 2.0841e+06 1e-1
-3.1742e+05 2.077e+06 1e-1
-3.3049e+05 2.0854e+06 1e-1
-3.0944e+05 2.0863e+06 1e-1
-3.1096e+05 2.0854e+06 1e-1
-3.1483e+05 2.0795e+06 1e-1
-3.1903e+05 2.0802e+06 1e-1
-3.2198e+05 2.0857e+06 1e-1
-3.2149e+05 2.0818e+06 1e-1
-3.1765e+05 2.0842e+06 1e-1
-3.1609e+05 2.0831e+06 1e-1
-3.2995e+05 2.0839e+06 1e-1
-3.156e+05 2.0858e+06 1e-1
-3.2637e+05 2.0819e+06 1e-1
-3.2829e+05 2.0784e+06 1e-1
-3.2658e+05 2.0844e+06 1e-1
